-45.5 -23.6999999999999993 7
-45.4833333333333343 -23.6999999999999993 56
-45.4666666666666686 -23.6999999999999993 9
-45.4499999999999957 -23.6999999999999993 4
-45.43333333333333 -23.6999999999999993 1
-45.4166666666666643 -23.6999999999999993 -1
-45.3999999999999986 -23.6999999999999993 -1
-45.3833333333333329 -23.6999999999999993 -1
-45.3666666666666671 -23.6999999999999993 -1
-45.3499999999999943 -23.6999999999999993 -1
-45.3333333333333286 -23.6999999999999993 -1
-45.3166666666666629 -23.6999999999999993 -1
-45.2999999999999972 -23.6999999999999993 -2
-45.5 -23.7166666666666686 49
-45.4833333333333343 -23.7166666666666686 178
-45.4666666666666686 -23.7166666666666686 22
-45.4499999999999957 -23.7166666666666686 3
-45.43333333333333 -23.7166666666666686 1
-45.4166666666666643 -23.7166666666666686 -1
-45.3999999999999986 -23.7166666666666686 -1
-45.3833333333333329 -23.7166666666666686 -1
-45.3666666666666671 -23.7166666666666686 -1
-45.3499999999999943 -23.7166666666666686 -1
-45.3333333333333286 -23.7166666666666686 1
-45.3166666666666629 -23.7166666666666686 0
-45.2999999999999972 -23.7166666666666686 -1
-45.5 -23.7333333333333343 162
-45.4833333333333343 -23.7333333333333343 242
-45.4666666666666686 -23.7333333333333343 115
-45.4499999999999957 -23.7333333333333343 82
-45.43333333333333 -23.7333333333333343 154
-45.4166666666666643 -23.7333333333333343 201
-45.3999999999999986 -23.7333333333333343 35
-45.3833333333333329 -23.7333333333333343 -1
-45.3666666666666671 -23.7333333333333343 -1
-45.3499999999999943 -23.7333333333333343 1
-45.3333333333333286 -23.7333333333333343 255
-45.3166666666666629 -23.7333333333333343 212
-45.2999999999999972 -23.7333333333333343 70
-45.5 -23.75 369
-45.4833333333333343 -23.75 481
-45.4666666666666686 -23.75 479
-45.4499999999999957 -23.75 479
-45.43333333333333 -23.75 617
-45.4166666666666643 -23.75 207
-45.3999999999999986 -23.75 0
-45.3833333333333329 -23.75 -2
-45.3666666666666671 -23.75 -1
-45.3499999999999943 -23.75 61
-45.3333333333333286 -23.75 358
-45.3166666666666629 -23.75 576
-45.2999999999999972 -23.75 402
-45.5 -23.7666666666666657 494
-45.4833333333333343 -23.7666666666666657 538
-45.4666666666666686 -23.7666666666666657 558
-45.4499999999999957 -23.7666666666666657 587
-45.43333333333333 -23.7666666666666657 562
-45.4166666666666643 -23.7666666666666657 107
-45.3999999999999986 -23.7666666666666657 0
-45.3833333333333329 -23.7666666666666657 -1
-45.3666666666666671 -23.7666666666666657 -1
-45.3499999999999943 -23.7666666666666657 97
-45.3333333333333286 -23.7666666666666657 503
-45.3166666666666629 -23.7666666666666657 764
-45.2999999999999972 -23.7666666666666657 710
-45.5 -23.783333333333335 550
-45.4833333333333343 -23.783333333333335 547
-45.4666666666666686 -23.783333333333335 567
-45.4499999999999957 -23.783333333333335 588
-45.43333333333333 -23.783333333333335 598
-45.4166666666666643 -23.783333333333335 187
-45.3999999999999986 -23.783333333333335 19
-45.3833333333333329 -23.783333333333335 -1
-45.3666666666666671 -23.783333333333335 0
-45.3499999999999943 -23.783333333333335 180
-45.3333333333333286 -23.783333333333335 599
-45.3166666666666629 -23.783333333333335 916
-45.2999999999999972 -23.783333333333335 754
-45.5 -23.8000000000000007 570
-45.4833333333333343 -23.8000000000000007 604
-45.4666666666666686 -23.8000000000000007 589
-45.4499999999999957 -23.8000000000000007 388
-45.43333333333333 -23.8000000000000007 342
-45.4166666666666643 -23.8000000000000007 123
-45.3999999999999986 -23.8000000000000007 4
-45.3833333333333329 -23.8000000000000007 -1
-45.3666666666666671 -23.8000000000000007 3
-45.3499999999999943 -23.8000000000000007 199
-45.3333333333333286 -23.8000000000000007 580
-45.3166666666666629 -23.8000000000000007 843
-45.2999999999999972 -23.8000000000000007 989
-45.5 -23.81666666666667 597
-45.4833333333333343 -23.81666666666667 389
-45.4666666666666686 -23.81666666666667 120
-45.4499999999999957 -23.81666666666667 48
-45.43333333333333 -23.81666666666667 159
-45.4166666666666643 -23.81666666666667 47
-45.3999999999999986 -23.81666666666667 -1
-45.3833333333333329 -23.81666666666667 0
-45.3666666666666671 -23.81666666666667 9
-45.3499999999999943 -23.81666666666667 137
-45.3333333333333286 -23.81666666666667 475
-45.3166666666666629 -23.81666666666667 758
-45.2999999999999972 -23.81666666666667 758
-45.5 -23.8333333333333357 129
-45.4833333333333343 -23.8333333333333357 12
-45.4666666666666686 -23.8333333333333357 -1
-45.4499999999999957 -23.8333333333333357 2
-45.43333333333333 -23.8333333333333357 1
-45.4166666666666643 -23.8333333333333357 0
-45.3999999999999986 -23.8333333333333357 7
-45.3833333333333329 -23.8333333333333357 98
-45.3666666666666671 -23.8333333333333357 95
-45.3499999999999943 -23.8333333333333357 244
-45.3333333333333286 -23.8333333333333357 504
-45.3166666666666629 -23.8333333333333357 634
-45.2999999999999972 -23.8333333333333357 445
-45.5 -23.8500000000000014 -2
-45.4833333333333343 -23.8500000000000014 -3
-45.4666666666666686 -23.8500000000000014 -1
-45.4499999999999957 -23.8500000000000014 -1
-45.43333333333333 -23.8500000000000014 -1
-45.4166666666666643 -23.8500000000000014 5
-45.3999999999999986 -23.8500000000000014 191
-45.3833333333333329 -23.8500000000000014 379
-45.3666666666666671 -23.8500000000000014 421
-45.3499999999999943 -23.8500000000000014 499
-45.3333333333333286 -23.8500000000000014 623
-45.3166666666666629 -23.8500000000000014 370
-45.2999999999999972 -23.8500000000000014 165
-45.5 -23.8666666666666671 -8
-45.4833333333333343 -23.8666666666666671 -3
-45.4666666666666686 -23.8666666666666671 -1
-45.4499999999999957 -23.8666666666666671 -1
-45.43333333333333 -23.8666666666666671 48
-45.4166666666666643 -23.8666666666666671 216
-45.3999999999999986 -23.8666666666666671 599
-45.3833333333333329 -23.8666666666666671 913
-45.3666666666666671 -23.8666666666666671 940
-45.3499999999999943 -23.8666666666666671 925
-45.3333333333333286 -23.8666666666666671 733
-45.3166666666666629 -23.8666666666666671 553
-45.2999999999999972 -23.8666666666666671 225
-45.5 -23.8833333333333364 -17
-45.4833333333333343 -23.8833333333333364 -12
-45.4666666666666686 -23.8833333333333364 -2
-45.4499999999999957 -23.8833333333333364 88
-45.43333333333333 -23.8833333333333364 317
-45.4166666666666643 -23.8833333333333364 610
-45.3999999999999986 -23.8833333333333364 781
-45.3833333333333329 -23.8833333333333364 1145
-45.3666666666666671 -23.8833333333333364 1033
-45.3499999999999943 -23.8833333333333364 786
-45.3333333333333286 -23.8833333333333364 611
-45.3166666666666629 -23.8833333333333364 423
-45.2999999999999972 -23.8833333333333364 226
-45.5 -23.9000000000000021 -21
-45.4833333333333343 -23.9000000000000021 -19
-45.4666666666666686 -23.9000000000000021 -2
-45.4499999999999957 -23.9000000000000021 218
-45.43333333333333 -23.9000000000000021 782
-45.4166666666666643 -23.9000000000000021 864
-45.3999999999999986 -23.9000000000000021 909
-45.3833333333333329 -23.9000000000000021 846
-45.3666666666666671 -23.9000000000000021 707
-45.3499999999999943 -23.9000000000000021 409
-45.3333333333333286 -23.9000000000000021 308
-45.3166666666666629 -23.9000000000000021 179
-45.2999999999999972 -23.9000000000000021 249
